ply
format ascii 1.0
comment Created by Open3D
element vertex 321
property double x
property double y
property double z
property uchar red
property uchar green
property uchar blue
end_header
320.977 171.207 560.119 166 144 120
-1452.75 -729.521 2682.07 140 181 204
6695.26 -628.539 -11650.1 202 179 138
-31.6703 87.6365 326.905 221 180 198
-31.6703 87.6365 326.905 198 180 221
775.425 -491.38 -1489.73 140 171 194
775.425 -491.38 -1489.73 194 171 140
-12.2209 -33.6105 370.142 199 177 201
-14.5077 89.8447 314.813 201 177 199
-572.535 119.327 1126.44 145 180 200
-531.462 221.905 1100.09 200 180 147
-28.329 -81.2282 632.547 190 173 238
-26.3663 39.6511 568.487 238 173 190
-702.326 -125.414 1303.91 135 176 198
-23.0791 44.7012 566.38 172 145 160
-658.269 21.2994 1231.17 136 173 195
-718.675 -127.732 1334.11 198 176 135
-23.0791 44.7012 566.38 160 145 172
-24.2458 -78.9597 641.569 197 173 187
-23.7072 34.6782 580.277 187 173 197
-231.979 52.905 412.416 202 180 143
-231.979 52.905 412.416 143 180 202
-700.227 -283.68 1320.08 200 178 141
-700.227 -283.68 1320.08 141 178 200
-410.265 110.496 808.528 201 179 142
-410.265 110.496 808.528 142 179 201
-456.408 125.544 841.333 198 176 139
-488.328 125.202 868.648 140 174 197
-500.898 -5.78408 903.118 202 180 139
-456.408 125.544 841.333 139 176 198
-500.898 -5.78408 903.118 202 180 139
-497.689 113.378 921.342 141 175 198
-497.689 113.378 921.342 198 175 141
-422.662 233.749 862.693 144 175 198
-422.662 233.749 862.693 198 175 144
1158.13 149.924 -2316.42 141 178 200
1809.63 -897.52 -3748.69 200 178 141
-1204.11 -566.996 2186.91 137 178 200
-1115.5 128.163 1902.29 200 178 137
1192.66 -306.388 -2090.45 142 179 201
119.915 102.103 382.551 181 165 238
-980.312 -524.007 1847.35 139 180 202
-782.975 -333.039 1413.46 201 179 142
-644.839 78.0467 1141.43 142 179 201
-469.873 192.189 964.646 196 176 139
-469.873 192.189 964.646 139 176 196
-980.312 -524.007 1847.35 202 180 139
-606.348 151.816 1131.32 141 182 204
-606.348 151.816 1131.32 204 182 141
-723.93 -126.296 1402.9 144 179 199
-431.485 258.876 918.392 199 179 144
130.147 103.995 380.602 249 178 192
-557.372 275.112 1065.89 196 173 139
131.677 103.012 377.712 250 178 193
131.645 103.524 382.778 185 168 238
133.529 104.281 381.435 250 179 193
132.444 102.984 382.02 178 161 233
133.876 102.951 380.527 246 173 191
133.529 104.281 381.435 193 179 250
142.299 103.777 381.737 240 169 190
139.779 104.142 386.663 173 157 220
-527.303 289.103 1081.86 140 177 197
141.272 103.572 385.112 173 153 223
253.845 164.358 648.002 209 149 167
253.845 164.358 648.002 167 149 209
-564.189 -258.832 1174.94 140 181 203
-564.189 -258.832 1174.94 203 181 140
-5442.19 -2144.65 11235.3 145 186 208
-2927.46 708.965 5852.33 208 186 145
-3256.98 -477.289 6131.87 149 184 204
-1144.06 540.997 2294.77 204 184 149
801.789 -117.674 -1252.71 138 174 198
801.789 -117.674 -1252.71 198 174 138
129.013 103.635 382.55 237 172 192
-853.156 111.848 1377.3 198 174 138
-837.115 223.925 1435.52 141 177 201
-837.115 223.925 1435.52 201 177 141
-837.162 -375.38 1534.58 139 176 198
-711.902 79.6965 1263.78 198 176 139
127.475 104.195 384.063 234 162 182
-853.156 111.848 1377.3 198 174 138
-747.861 118.4 1261.46 136 177 199
-735.644 141.944 1245.69 196 174 137
-732.496 -240.727 1365.25 142 179 201
-732.496 -240.727 1365.25 201 179 142
155.414 -8.69947 408.896 223 151 168
122.098 102.68 383.218 168 151 223
-741.357 141.912 1251.48 139 176 198
-844.718 -127.037 1557.98 199 179 146
-476.497 283.379 969.616 146 179 199
-505.59 232.545 969.765 195 172 138
-505.59 232.545 969.765 138 172 195
-501.209 46.3059 935.703 201 177 141
-571.027 174.44 1014.14 143 180 202
-530.365 175.908 957.764 201 179 142
-509.057 72.9851 938.878 137 174 196
-509.057 72.9851 938.878 196 174 137
-501.209 46.3059 935.703 141 177 201
-530.365 175.908 957.764 201 179 142
-570.136 -254.341 1106.75 137 178 200
-488.127 144.472 920.92 200 178 137
-1014.41 483.457 1992.2 148 183 203
-761.673 513.94 1640.59 198 177 146
-1014.41 483.457 1992.2 148 183 203
-3138.38 -1016 5414.6 192 170 133
-1821.09 399.967 3091.1 133 170 192
-761.673 513.94 1640.59 198 177 146
-752.401 436.472 1581.3 146 179 199
-752.401 436.472 1581.3 199 179 146
-444.625 86.2151 834.404 146 182 205
88.7295 108.307 391.632 191 174 243
88.7295 108.307 391.632 243 174 191
-433.005 34.2472 834.17 197 175 138
-431.26 34.0475 830.821 138 175 197
-444.625 86.2151 834.404 205 182 146
-701.019 -181.402 1326.22 131 172 194
-701.019 -181.402 1326.22 194 172 131
-365.762 12.0724 689.531 137 178 200
-657.23 114.915 1250.05 201 179 142
42.8882 50.1876 370.7 227 224 210
-365.345 -17.3823 666.006 197 175 134
43.1734 43.364 373.661 218 220 211
43.1734 43.364 373.661 211 220 218
-548.744 -21.3325 1138.37 139 180 202
-25.9763 -78.7316 639.711 161 137 152
-25.1827 35.2496 578.087 152 137 161
-548.744 -21.3325 1138.37 202 180 139
-556.234 -52.5076 1115.83 139 180 202
-846.951 -30.303 1555.48 205 184 153
-510.291 168.813 1035.82 153 184 205
1117.78 -203.038 -1876.99 196 174 133
1117.78 -203.038 -1876.99 133 174 196
-12.0127 59.5165 575.809 181 166 209
-12.0127 59.5165 575.809 209 166 181
-242.095 38.6661 428.298 197 175 138
-240.244 48.6326 457.231 140 179 201
-242.095 38.6661 428.298 197 175 138
-32.7567 87.8876 328.664 223 178 197
-215.694 72.737 424.162 200 178 141
-240.244 48.6326 457.231 140 179 201
-398.672 760.339 2449.98 180 164 205
-163.668 116.94 329.551 141 172 193
-398.672 760.339 2449.98 180 164 205
2736.69 137.27 -4817.67 141 174 194
-6232.8 3630.24 11897 194 174 141
-280.765 52.8192 494.232 141 178 200
-280.765 52.8192 494.232 200 178 141
-46.4889 85.087 337.519 191 148 163
-46.4889 85.087 337.519 163 148 191
-95.1385 476.283 1485.71 216 175 197
-37.0478 88.0353 339.052 189 173 218
-36.9099 87.6732 337.76 218 173 189
-36.4575 87.8065 337.508 193 177 222
-21.089 88.6409 306.834 216 175 197
-19.2543 88.0668 304.342 185 162 204
-19.2543 88.0668 304.342 204 162 185
-33.9156 87.1739 338.775 189 172 215
-35.2746 86.7702 339.54 211 167 184
-143.198 692.245 2148.56 194 177 222
-32.9075 86.538 338.299 191 150 166
1127.3 -122.529 -1957.64 200 178 137
-127.81 670.296 2091.9 212 157 176
-128.258 673.407 2092.89 198 178 237
886.886 -370.226 -1753.87 142 179 201
920.857 -469.54 -1865.22 200 178 141
-11.6596 89.4572 320.369 205 165 187
-11.699 89.7979 321.522 187 165 205
-238.016 97.2539 439.463 140 174 197
1020.52 -134.552 -1644.62 201 177 141
-396.779 -183.5 727.659 134 171 194
-330.683 70.9247 603.785 194 171 134
-542.943 -11.6973 1068.71 136 173 195
-542.943 -11.6973 1068.71 195 173 136
-581.034 -126.302 1118.52 136 177 199
-733.672 -392.028 1391.01 206 184 143
-648.532 -96.8795 1200.52 143 184 206
-1036.02 -91.9855 1852.59 201 181 148
-581.256 200.654 1141.65 148 181 201
-706.844 -354.657 1432.6 202 180 139
-600.016 -48.5973 1201.83 139 180 202
-724.485 -128.421 1360.55 197 175 134
82.129 101.241 380.989 197 165 190
-426.752 153.546 813.223 195 173 136
-670.144 -273.999 1294.33 137 178 201
-658.364 -256.989 1273.54 201 178 137
-426.752 153.546 813.223 136 173 195
91.3012 106.418 385.045 188 175 240
1147.02 -637.179 -2304.19 144 178 201
-376.857 185.05 801.954 202 180 143
-514.856 100.299 939.907 138 179 202
-385.57 255.072 800.298 196 173 141
123.042 -13.1301 416.592 242 170 189
92.9164 106.381 383.568 189 170 242
133.785 -8.88424 430.93 241 187 204
132.549 -6.83877 430.594 204 187 241
1147.02 -637.179 -2304.19 144 178 201
-304.459 -117.311 585.439 206 184 147
-225.495 89.4624 464.02 147 184 206
-745.446 504.598 1606.49 196 175 144
-2277.25 -631.578 4178.97 137 174 196
-1250.44 367.651 2325.29 196 174 137
182.905 207.795 725.615 214 172 193
-755.839 510.336 1628.59 196 175 144
-1324.23 27.793 2460.63 137 178 200
182.905 207.795 725.615 193 172 214
-792.414 -215.398 1437.56 138 175 197
-495.265 50.3941 921.661 199 177 140
-689.038 -222.89 1236.43 141 175 198
-498.027 111.529 919.771 198 175 141
-619.612 -263.077 1147.21 141 178 200
-503.872 65.0003 928.035 200 178 141
-792.414 -215.398 1437.56 138 175 197
-495.265 50.3941 921.661 199 177 140
-519.65 123.466 966.189 139 173 196
-191.94 18.3764 374.32 210 188 147
-191.94 18.3764 374.32 147 188 210
-390.393 300.327 860.889 202 181 150
-390.393 300.327 860.889 150 181 202
-682.091 -331.209 1306.31 202 180 139
-591.034 43.3021 1098.43 139 180 202
-631.527 -366.578 1235.52 205 182 141
-655.911 77.3564 1167.86 141 182 205
-462.181 236.585 968.793 195 172 138
-599.22 41.1557 1114.46 139 180 202
-672.023 28.6115 1200.13 198 176 135
-462.181 236.585 968.793 138 172 195
-553.729 103.975 1077.24 203 179 143
-708.856 28.0933 1237.51 135 176 198
-586.785 47.2477 1120.93 205 182 141
124.18 102.417 377.444 250 176 195
-586.785 47.2477 1120.93 205 182 141
161.244 -8.65094 398.546 221 153 169
127.528 101.719 374.203 169 153 221
125.192 101.609 375.832 238 169 188
125.192 101.609 375.832 188 169 238
-1006.2 100.614 1674.55 132 173 195
-1006.2 100.614 1674.55 195 173 132
131.661 103.093 381.35 235 164 181
132.04 102.954 380.976 187 170 240
137.23 104.005 380.511 211 143 159
136.746 103.907 381.775 179 165 233
136.746 103.907 381.775 233 165 179
138.011 103.466 379.76 191 170 243
137.305 103.484 380.505 234 165 180
140.045 102.917 378.411 191 169 241
139.138 104.332 382.853 243 170 191
143.678 103.984 386.16 183 163 232
143.756 103.454 386.15 223 157 176
144.087 103.577 385.766 167 148 215
144.262 103.292 384.862 215 150 169
145.924 102.868 383.832 176 158 220
145.325 103.132 383.71 237 172 191
95.4178 57.9795 230.025 194 177 232
93.895 57.7953 230.657 218 177 189
93.92 57.6398 230.665 193 182 224
95.9975 57.5759 229.84 198 159 174
138.757 103.614 380.413 189 167 241
136.144 104.597 383.056 240 169 183
-1410.32 -589.247 2677.86 201 179 138
-713.905 59.1442 1373.89 145 180 200
-862.282 79.7421 1541.84 194 174 141
-623.071 -110.928 1265.03 142 181 203
-579.831 222.793 1067.48 194 174 141
-419.969 299.4 896.916 142 175 195
10779.3 -1980.69 -17383.2 195 173 136
10779.3 -1980.69 -17383.2 136 173 195
-623.071 -110.928 1265.03 203 181 142
1408.21 -429.411 -2728.02 141 182 204
-440.637 220.777 926.836 201 179 142
-418.245 298.16 893.233 142 175 195
117.396 102.595 382.793 184 169 238
117.396 102.595 382.793 238 169 184
-426.636 273.534 885.706 197 177 144
-651.455 -348.457 1216.3 141 182 204
-641.121 81.1521 1107.4 204 182 141
-628.067 -33.7984 1065.3 138 176 198
-473.259 237.367 908.187 198 175 141
-490.082 100.375 919.372 139 176 198
-740.541 -161.17 1324.51 198 175 141
-467.125 239.255 896.24 141 175 198
-490.082 100.375 919.372 198 176 139
-385.451 211.563 808.628 140 171 192
-546.556 89.7148 962.458 192 170 133
-1484.77 281.861 2640.22 136 173 195
-1484.77 281.861 2640.22 195 173 136
-1379.77 89.5984 2447.4 137 178 201
-1379.77 89.5984 2447.4 201 178 137
-503.106 -20.0786 905.359 142 183 205
127.896 -6.90773 437.524 201 182 245
127.896 -6.90773 437.524 245 182 201
-503.106 -20.0786 905.359 205 183 142
-405.797 67.0659 815.931 145 186 208
-374.656 226.586 762.075 198 177 146
-374.656 226.586 762.075 146 177 198
82.3583 97.8426 381.251 186 160 196
-405.797 67.0659 815.931 145 186 208
82.3583 97.8426 381.251 186 160 196
-884.676 -99.5555 1656.33 135 172 194
-884.676 -99.5555 1656.33 194 172 135
-630.655 386.936 1265.28 140 173 193
-165.622 115.889 346.875 200 180 147
17670.6 7876.32 -32894.5 137 178 200
11674.4 -1968.7 -19923.6 200 178 137
-165.622 115.889 346.875 147 180 200
-401.838 -167.173 773.573 208 186 149
-317.381 47.7881 628.877 149 186 208
4603.56 561.664 -8662.27 199 179 144
-4108.83 2195.62 8171.99 144 179 199
-1166.56 -380.612 2130.63 193 171 134
-820.39 230.669 1502.71 134 171 193
-672.355 222.844 1332.47 197 175 138
-1230.32 -179.485 2470.9 143 180 202
-1230.32 -179.485 2470.9 202 180 143
1262.47 -318.019 -2291.04 136 177 199
-464.846 -48.0327 965.499 203 179 143
1262.47 -318.019 -2291.04 136 177 199
-464.846 -48.0327 965.499 203 179 143
-201.669 102.957 410.47 146 181 201
-492.504 12.7749 991.998 203 181 144
-492.504 12.7749 991.998 144 181 203
-201.669 102.957 410.47 201 181 146
