ply
		format ascii 1.0
		element vertex 3184
		property float x
		property float y
		property float z
		property uchar red
		property uchar green
		property uchar blue
		end_header
-9162.373047 -4330.984375 15750.028320 108 157 156
-8837.859375 -4187.302246 15227.515625 107 156 154
-8456.603516 -4016.003662 14604.572266 107 157 155
-8249.409180 -3926.759033 14280.026367 105 157 156
-8086.381348 -3858.169434 14030.592773 103 155 154
-7895.066895 -3775.729980 13730.793945 104 155 155
-7809.788086 -3743.732178 13614.431641 103 152 151
-7661.560059 -3681.336670 13387.524414 78 112 108
-7518.191406 -3620.986816 13168.056641 44 53 48
-7379.447754 -3562.583984 12955.668945 42 41 37
-7159.872070 -3464.787354 12600.022461 43 39 34
-7087.282715 -3437.824219 12501.967773 43 38 33
-7070.412598 -3437.824219 12501.967773 43 38 32
-7915.983887 -3858.169434 14030.592773 44 39 33
-8037.442871 -3926.759033 14280.026367 45 40 34
-8018.173340 -3926.759033 14280.026367 44 39 34
-7998.903320 -3926.759033 14280.026367 42 37 32
-7840.251465 -3858.169434 14030.592773 41 36 32
-7821.318359 -3858.169434 14030.592773 40 35 32
-7802.385254 -3858.169434 14030.592773 39 34 30
-7817.590332 -3875.091309 14092.130859 39 34 29
-7798.574219 -3875.091309 14092.130859 38 33 28
-7848.403809 -3909.384033 14216.839844 37 32 28
-7899.123047 -3944.289307 14343.776367 37 32 29
-7915.102539 -3961.976807 14408.097656 36 32 28
-7931.226074 -3979.823486 14472.999023 34 32 28
-3514.636963 -1840.668335 6693.762207 0 0 0
-3505.604248 -1840.668335 6693.762207 0 0 0
-3496.571533 -1840.668335 6693.762207 0 0 0
-3487.538818 -1840.668335 6693.762207 0 0 0
-3478.506348 -1840.668335 6693.762207 0 0 0
-3469.473633 -1840.668335 6693.762207 0 0 0
-3460.440918 -1840.668335 6693.762207 0 0 0
-3451.408203 -1840.668335 6693.762207 0 0 0
-3442.375732 -1840.668335 6693.762207 0 0 0
-3433.343018 -1840.668335 6693.762207 0 0 0
-3424.310303 -1840.668335 6693.762207 0 0 0
-3415.277588 -1840.668335 6693.762207 0 0 0
-3406.245117 -1840.668335 6693.762207 0 0 0
-3397.212402 -1840.668335 6693.762207 0 0 0
-4074.661621 -1831.635620 6693.762207 254 242 193
-4065.628906 -1831.635620 6693.762207 255 239 186
121697.890625 54949.070312 -200812.859375 247 226 172
121426.914062 54949.070312 -200812.859375 181 154 108
121155.929688 54949.070312 -200812.859375 103 81 52
120884.953125 54949.070312 -200812.859375 70 54 35
120613.968750 54949.070312 -200812.859375 61 48 35
120342.992188 54949.070312 -200812.859375 56 46 36
-9162.373047 -4309.730957 15750.028320 108 157 154
-8554.075195 -4032.959229 14738.558594 107 157 153
-8305.592773 -3924.933594 14343.776367 107 158 154
-8105.314453 -3839.236328 14030.592773 107 158 155
-7879.920898 -3741.213379 13672.365234 105 157 153
-7697.690430 -3663.271240 13387.524414 106 157 154
-7584.814941 -3618.045898 13222.246094 104 151 147
-7444.430664 -3559.453857 13008.121094 72 99 93
-7279.518555 -3488.829834 12750.023438 43 49 43
-7148.839844 -3434.316895 12550.803711 41 41 36
-7104.152832 -3420.953857 12501.967773 41 38 34
-6925.595703 -3342.909180 12216.751953 41 38 33
-6935.480957 -3355.668457 12263.380859 43 38 32
-6999.074707 -3394.537109 12405.427734 43 38 32
-7411.576172 -3603.217773 13168.056641 43 38 33
-7776.245605 -3789.591064 13849.163086 42 37 32
-7757.557129 -3789.591064 13849.163086 41 36 32
-7512.207520 -3678.598877 13443.539062 40 35 32
-7494.066406 -3678.598877 13443.539062 40 35 32
-7475.925781 -3678.598877 13443.539062 39 34 30
-7489.120117 -3694.055176 13500.024414 40 35 29
-7534.215820 -3725.360596 13614.431641 39 34 28
-7580.082031 -3757.201416 13730.793945 38 33 27
-7693.059082 -3822.543945 13969.590820 38 33 28
-7810.034668 -3890.199707 14216.839844 38 33 29
-7790.850586 -3890.199707 14216.839844 37 33 29
-7876.217773 -3942.534180 14408.097656 36 32 28
-3514.636963 -1831.635620 6693.762207 0 0 0
-3505.604248 -1831.635620 6693.762207 0 0 0
-3496.571533 -1831.635620 6693.762207 0 0 0
-3487.538818 -1831.635620 6693.762207 0 0 0
-3478.506348 -1831.635620 6693.762207 0 0 0
-3469.473633 -1831.635620 6693.762207 0 0 0
-3460.440918 -1831.635620 6693.762207 0 0 0
-3451.408203 -1831.635620 6693.762207 0 0 0
-3442.375732 -1831.635620 6693.762207 0 0 0
-3433.343018 -1831.635620 6693.762207 0 0 0
-3424.310303 -1831.635620 6693.762207 0 0 0
-3415.277588 -1831.635620 6693.762207 0 0 0
-3406.245117 -1831.635620 6693.762207 0 0 0
-3397.212402 -1831.635620 6693.762207 0 0 0
-4074.661621 -1822.603027 6693.762207 255 239 187
-4065.628906 -1822.603027 6693.762207 255 236 181
121697.890625 54678.089844 -200812.859375 252 229 172
121426.914062 54678.089844 -200812.859375 206 177 125
121155.929688 54678.089844 -200812.859375 119 94 60
120884.953125 54678.089844 -200812.859375 75 58 37
120613.968750 54678.089844 -200812.859375 61 49 34
320914.656250 145808.234375 -535501.000000 55 46 35
320192.031250 145808.234375 -535501.000000 52 51 41
-8554.075195 -4013.070801 14738.558594 111 158 153
-8195.827148 -3853.962402 14154.210938 111 159 154
-7898.370605 -3722.763672 13672.365234 111 158 155
-7683.740234 -3630.080811 13331.974609 109 156 152
-7389.782715 -3499.397705 12852.023438 109 156 152
-7313.928711 -3471.624756 12750.023438 104 146 140
-7239.269043 -3444.289062 12649.628906 64 84 78
-7165.775879 -3417.380615 12550.803711 42 45 40
-7038.857910 -3364.805664 12357.714844 41 40 36
-6942.081055 -3326.423828 12216.751953 41 38 34
-6925.595703 -3326.423828 12216.751953 43 39 34
-6909.110352 -3326.423828 12216.751953 43 38 32
-6892.624512 -3326.423828 12216.751953 42 37 31
-6982.334473 -3377.797119 12405.427734 42 37 32
-7102.712402 -3444.289062 12649.628906 42 37 33
-7199.013184 -3499.397705 12852.023438 41 36 33
-7181.670410 -3499.397705 12852.023438 40 35 32
-7193.100098 -3513.451660 12903.637695 40 35 32
-7233.790527 -3541.900635 13008.121094 40 35 31
-7245.571289 -3556.298584 13060.999023 40 35 31
-7347.416992 -3615.080322 13276.883789 39 34 30
-7390.580078 -3645.206055 13387.524414 39 33 30
-7529.376953 -3722.763672 13672.365234 38 33 30
-7640.986328 -3787.227051 13909.116211 38 33 29
-7688.787109 -3820.303223 14030.592773 38 33 28
-7669.854004 -3820.303223 14030.592773 38 33 28
-7752.481445 -3871.015381 14216.839844 38 33 29
-3514.636963 -1822.603027 6693.762207 0 0 0
-3505.604248 -1822.603027 6693.762207 0 0 0
-3496.571533 -1822.603027 6693.762207 0 0 0
-3487.538818 -1822.603027 6693.762207 0 0 0
-3478.506348 -1822.603027 6693.762207 0 0 0
-3469.473633 -1822.603027 6693.762207 0 0 0
-3460.440918 -1822.603027 6693.762207 0 0 0
-3451.408203 -1822.603027 6693.762207 0 0 0
-3442.375732 -1822.603027 6693.762207 0 0 0
-3433.343018 -1822.603027 6693.762207 0 0 0
-3424.310303 -1822.603027 6693.762207 0 0 0
-3415.277588 -1822.603027 6693.762207 0 0 0
-3406.245117 -1822.603027 6693.762207 0 0 0
-4074.661621 -1813.570312 6693.762207 255 244 193
-4065.628906 -1813.570312 6693.762207 255 237 182
121697.890625 54407.109375 -200812.859375 254 229 169
121426.914062 54407.109375 -200812.859375 227 195 138
121155.929688 54407.109375 -200812.859375 143 112 70
120884.953125 54407.109375 -200812.859375 86 65 39
120613.968750 54407.109375 -200812.859375 65 51 34
120342.992188 54407.109375 -200812.859375 57 50 36
-8476.310547 -3956.880859 14604.572266 118 162 156
-8088.924805 -3784.842529 13969.590820 115 160 154
-7701.730469 -3612.090332 13331.974609 113 158 153
-7407.125488 -3482.055176 12852.023438 110 156 151
-7216.584961 -3400.444336 12550.803711 111 156 152
-7171.634277 -3387.213135 12501.967773 101 138 132
-7127.032227 -3374.084473 12453.510742 57 71 66
-7028.500488 -3335.301758 12310.367188 41 42 38
-6880.086426 -3272.608154 12078.969727 41 40 36
-6787.239258 -3236.110596 11944.259766 42 39 35
-6721.149902 -3212.228027 11856.110352 44 39 35
-6705.151367 -3212.228027 11856.110352 43 38 33
-6713.927246 -3224.125000 11900.021484 42 37 32
-6876.139160 -3309.938232 12216.751953 42 37 33
-6938.803711 -3348.129883 12357.714844 42 37 33
-7002.931152 -3387.213135 12501.967773 41 36 33
-7013.350098 -3400.444336 12550.803711 41 36 33
-6996.413574 -3400.444336 12550.803711 40 35 32
-6979.477539 -3400.444336 12550.803711 39 33 30
-6962.541504 -3400.444336 12550.803711 38 33 30
-7000.294922 -3427.219482 12649.628906 38 33 30
-7066.689941 -3468.182373 12800.820312 38 33 30
-7222.055176 -3553.117432 13114.309570 38 33 30
-7447.543945 -3673.053955 13556.986328 39 34 30
-7589.362793 -3752.214600 13849.163086 39 34 29
-7669.854004 -3801.370117 14030.592773 38 33 29
-3523.669434 -1813.570312 6693.762207 0 0 0
-3514.636963 -1813.570312 6693.762207 0 0 0
-3505.604248 -1813.570312 6693.762207 0 0 0
-3496.571533 -1813.570312 6693.762207 0 0 0
-3487.538818 -1813.570312 6693.762207 0 0 0
-3478.506348 -1813.570312 6693.762207 0 0 0
-3469.473633 -1813.570312 6693.762207 0 0 0
-3460.440918 -1813.570312 6693.762207 0 0 0
-3451.408203 -1813.570312 6693.762207 0 0 0
-3442.375732 -1813.570312 6693.762207 0 0 0
-3433.343018 -1813.570312 6693.762207 0 0 0
-4074.661621 -1804.537720 6693.762207 255 252 207
-4065.628906 -1804.537720 6693.762207 255 245 193
-4056.596436 -1804.537720 6693.762207 255 231 172
121426.914062 54136.132812 -200812.859375 242 210 151
121155.929688 54136.132812 -200812.859375 169 134 87
120884.953125 54136.132812 -200812.859375 98 73 42
120613.968750 54136.132812 -200812.859375 69 54 33
-7850.011719 -3654.760010 13556.986328 123 164 158
-7454.285156 -3478.626953 12903.637695 118 160 155
-7233.520996 -3383.508301 12550.803711 114 158 153
-6945.284668 -3256.308594 12078.969727 115 158 152
-6903.033691 -3244.112793 12033.729492 95 128 120
-6886.795410 -3244.112793 12033.729492 49 61 55
-6870.556641 -3244.112793 12033.729492 41 41 37
-6778.159180 -3208.067139 11900.021484 41 40 36
-6712.379883 -3184.478271 11812.521484 42 38 35
-6671.910645 -3172.813477 11769.251953 42 37 34
-6631.737305 -3161.233887 11726.298828 43 38 34
-6664.560059 -3184.478271 11812.521484 43 38 34
-6673.153809 -3196.229248 11856.110352 43 38 34
-6756.887695 -3244.112793 12033.729492 41 36 33
-6791.521973 -3268.596680 12124.550781 41 36 33
-6775.160645 -3268.596680 12124.550781 41 36 32
-6758.799805 -3268.596680 12124.550781 41 36 32
-6793.711914 -3293.452881 12216.751953 40 35 31
-6829.159180 -3318.689941 12310.367188 39 34 31
-6945.604980 -3383.508301 12550.803711 39 34 30
-7066.689941 -3450.908691 12800.820312 38 33 30
-7222.055176 -3535.420898 13114.309570 39 34 30
-7447.543945 -3654.760010 13556.986328 38 33 30
-7589.362793 -3733.526367 13849.163086 38 33 29
-3550.767578 -1804.537720 6693.762207 36 32 29
-3541.734863 -1804.537720 6693.762207 28 25 22
-3532.702148 -1804.537720 6693.762207 7 6 5
-3523.669434 -1804.537720 6693.762207 0 0 0
-3514.636963 -1804.537720 6693.762207 0 0 0
-3505.604248 -1804.537720 6693.762207 0 0 0
-3496.571533 -1804.537720 6693.762207 0 0 0
-3487.538818 -1804.537720 6693.762207 0 0 0
-3478.506348 -1804.537720 6693.762207 0 0 0
-3469.473633 -1804.537720 6693.762207 0 0 0
-3460.440918 -1804.537720 6693.762207 0 0 0
-3451.408203 -1804.537720 6693.762207 0 0 0
-3442.375732 -1804.537720 6693.762207 0 0 0
-4074.661621 -1795.505005 6693.762207 255 248 204
-4065.628906 -1795.505005 6693.762207 255 242 192
-4056.596436 -1795.505005 6693.762207 255 233 175
121426.914062 53865.152344 -200812.859375 249 221 162
121155.929688 53865.152344 -200812.859375 192 158 106
120884.953125 53865.152344 -200812.859375 107 80 46
-7687.821289 -3561.332275 13276.883789 131 170 164
-7250.457031 -3366.572021 12550.803711 126 166 160
-6961.583984 -3240.009033 12078.969727 121 161 156
-6792.079590 -3168.538330 11812.521484 118 155 150
-6776.139648 -3168.538330 11812.521484 86 111 104
-6785.145020 -3180.230225 11856.110352 46 52 46
-6769.146484 -3180.230225 11856.110352 41 41 37
-6728.319824 -3168.538330 11812.521484 42 40 36
-6615.099121 -3122.617432 11641.325195 42 38 34
-6599.390137 -3122.617432 11641.325195 42 37 34
-6559.913086 -3111.344482 11599.298828 43 38 35
-6591.855469 -3133.972412 11683.657227 43 38 35
-6648.620117 -3168.538330 11812.521484 43 38 34
-6632.680176 -3168.538330 11812.521484 42 37 32
-6641.155762 -3180.230225 11856.110352 42 37 32
-6625.157227 -3180.230225 11856.110352 42 37 32
-6560.739746 -3156.931885 11769.251953 42 37 32
-6544.857910 -3156.931885 11769.251953 41 36 32
-6552.979980 -3168.538330 11812.521484 40 35 32
-6812.547363 -3302.078369 12310.367188 41 36 31
-3577.865479 -1795.505005 6693.762207 38 33 30
-3568.832764 -1795.505005 6693.762207 38 33 30
-3559.800293 -1795.505005 6693.762207 38 33 30
-3550.767578 -1795.505005 6693.762207 37 32 29
-3541.734863 -1795.505005 6693.762207 30 26 23
-3532.702148 -1795.505005 6693.762207 7 6 6
-3523.669434 -1795.505005 6693.762207 0 0 0
-3514.636963 -1795.505005 6693.762207 0 0 0
-3505.604248 -1795.505005 6693.762207 0 0 0
-3496.571533 -1795.505005 6693.762207 0 0 0
-3487.538818 -1795.505005 6693.762207 0 0 0
-3478.506348 -1795.505005 6693.762207 0 0 0
-3469.473633 -1795.505005 6693.762207 0 0 0
-3460.440918 -1795.505005 6693.762207 0 0 0
-3451.408203 -1795.505005 6693.762207 0 0 0
-3442.375732 -1795.505005 6693.762207 0 0 0
-4074.661621 -1786.472412 6693.762207 249 227 176
-4065.628906 -1786.472412 6693.762207 250 225 171
-4056.596436 -1786.472412 6693.762207 251 225 167
121426.914062 53594.171875 -200812.859375 251 225 167
121155.929688 53594.171875 -200812.859375 207 175 123
120884.953125 53594.171875 -200812.859375 113 85 50
-7687.821289 -3543.416260 13276.883789 137 175 167
-7084.416016 -3272.926514 12263.380859 133 170 164
-6808.020020 -3152.598389 11812.521484 129 165 160
-6693.644043 -3106.908447 11641.325195 120 153 148
-6606.128906 -3073.500977 11516.150391 75 95 89
-6590.588867 -3073.500977 11516.150391 42 47 42
-6622.522461 -3095.692139 11599.298828 40 40 36
-6606.870117 -3095.692139 11599.298828 40 39 35
-6567.508301 -3084.556641 11557.575195 41 38 33
-6458.977539 -3040.803955 11393.637695 43 38 33
-6512.888672 -3073.500977 11516.150391 44 39 34
-6520.720703 -3084.556641 11557.575195 43 38 33
-6624.266113 -3141.050293 11769.251953 42 37 34
-6632.680176 -3152.598389 11812.521484 42 37 33
-6616.739746 -3152.598389 11812.521484 43 37 33
-6600.799805 -3152.598389 11812.521484 42 37 33
-6560.739746 -3141.050293 11769.251953 42 37 33
-6544.857910 -3141.050293 11769.251953 41 36 31
-6552.979980 -3152.598389 11812.521484 41 36 30
-3595.930908 -1786.472412 6693.762207 36 31 28
-3586.898193 -1786.472412 6693.762207 36 31 28
-3577.865479 -1786.472412 6693.762207 37 32 29
-3568.832764 -1786.472412 6693.762207 37 32 29
-3559.800293 -1786.472412 6693.762207 38 33 30
-3550.767578 -1786.472412 6693.762207 38 33 30
-3541.734863 -1786.472412 6693.762207 31 27 24
-3532.702148 -1786.472412 6693.762207 8 7 6
-3523.669434 -1786.472412 6693.762207 0 0 0
-3514.636963 -1786.472412 6693.762207 0 0 0
-3505.604248 -1786.472412 6693.762207 0 0 0
-3496.571533 -1786.472412 6693.762207 0 0 0
-3487.538818 -1786.472412 6693.762207 0 0 0
-3478.506348 -1786.472412 6693.762207 0 0 0
-3469.473633 -1786.472412 6693.762207 0 0 0
-3460.440918 -1786.472412 6693.762207 0 0 0
-3451.408203 -1786.472412 6693.762207 0 0 0
-3442.375732 -1786.472412 6693.762207 0 0 0
-4074.661621 -1777.439697 6693.762207 244 216 162
-4065.628906 -1777.439697 6693.762207 243 211 155
-4056.596436 -1777.439697 6693.762207 249 222 165
121426.914062 53323.191406 -200812.859375 250 231 177
121155.929688 53323.191406 -200812.859375 207 183 134
120884.953125 53323.191406 -200812.859375 116 89 54
-7084.416016 -3256.378174 12263.380859 140 175 169
-6709.353027 -3091.199463 11641.325195 137 172 166
-6505.090332 -3004.123535 11313.400391 122 152 145
-6333.711426 -2931.859375 11041.256836 68 83 77
-6318.812012 -2931.859375 11041.256836 42 45 40
-6505.101562 -3025.429443 11393.637695 40 39 35
-6489.727051 -3025.429443 11393.637695 40 39 35
-6567.508301 -3068.960693 11557.575195 41 39 33
-6458.977539 -3025.429443 11393.637695 42 39 32
-6489.628418 -3047.039551 11475.020508 43 38 32
-6497.348633 -3057.960938 11516.150391 42 37 32
-6624.266113 -3125.168701 11769.251953 42 37 33
-6608.384277 -3125.168701 11769.251953 42 37 34
-6616.739746 -3136.658447 11812.521484 41 36 32
-3632.061523 -1777.439697 6693.762207 37 32 29
-3623.028809 -1777.439697 6693.762207 37 32 29
-3613.996094 -1777.439697 6693.762207 37 32 29
-3604.963379 -1777.439697 6693.762207 38 33 29
-3595.930908 -1777.439697 6693.762207 39 33 29
-3586.898193 -1777.439697 6693.762207 39 33 29
-3577.865479 -1777.439697 6693.762207 37 32 28
-3568.832764 -1777.439697 6693.762207 37 32 28
-3559.800293 -1777.439697 6693.762207 38 33 29
-3550.767578 -1777.439697 6693.762207 39 34 30
-3541.734863 -1777.439697 6693.762207 31 28 24
-3532.702148 -1777.439697 6693.762207 8 7 6
-3523.669434 -1777.439697 6693.762207 0 0 0
-3514.636963 -1777.439697 6693.762207 0 0 0
-3505.604248 -1777.439697 6693.762207 0 0 0
-3496.571533 -1777.439697 6693.762207 0 0 0
-3487.538818 -1777.439697 6693.762207 0 0 0
-3478.506348 -1777.439697 6693.762207 0 0 0
-3469.473633 -1777.439697 6693.762207 0 0 0
-3460.440918 -1777.439697 6693.762207 0 0 0
-3451.408203 -1777.439697 6693.762207 0 0 0
-3442.375732 -1777.439697 6693.762207 0 0 0
-3433.343018 -1777.439697 6693.762207 0 0 0
-4074.661621 -1768.407104 6693.762207 242 198 137
-4065.628906 -1768.407104 6693.762207 240 196 134
-4056.596436 -1768.407104 6693.762207 250 232 176
121426.914062 53052.210938 -200812.859375 250 240 186
121155.929688 53052.210938 -200812.859375 198 175 127
120884.953125 53052.210938 -200812.859375 119 92 55
-6935.510742 -3179.158691 12033.729492 138 173 166
-6437.093262 -2957.614502 11195.142578 119 147 138
-6290.478027 -2897.049072 10965.890625 63 74 67
-5989.493164 -2764.936035 10465.817383 46 45 41
-6260.882812 -2897.049072 10965.890625 44 41 38
-6489.727051 -3010.054688 11393.637695 43 41 37
-6647.560547 -3097.939453 11726.298828 43 39 33
-6489.628418 -3031.554932 11475.020508 43 38 32
-6497.348633 -3042.420654 11516.150391 43 38 32
-6624.266113 -3109.287109 11769.251953 43 38 33
-6608.384277 -3109.287109 11769.251953 42 37 33
-3650.126709 -1768.407104 6693.762207 38 33 30
-3641.093994 -1768.407104 6693.762207 37 32 29
-3632.061523 -1768.407104 6693.762207 36 31 28
-3623.028809 -1768.407104 6693.762207 36 31 28
-3613.996094 -1768.407104 6693.762207 38 33 29
-3604.963379 -1768.407104 6693.762207 40 35 29
-3595.930908 -1768.407104 6693.762207 42 36 30
-3586.898193 -1768.407104 6693.762207 43 37 30
-3577.865479 -1768.407104 6693.762207 41 35 29
-3568.832764 -1768.407104 6693.762207 39 34 28
-3559.800293 -1768.407104 6693.762207 38 33 29
-3550.767578 -1768.407104 6693.762207 38 33 29
-3541.734863 -1768.407104 6693.762207 30 26 24
-3532.702148 -1768.407104 6693.762207 7 7 6
-3523.669434 -1768.407104 6693.762207 0 0 0
-3514.636963 -1768.407104 6693.762207 0 0 0
-3505.604248 -1768.407104 6693.762207 0 0 0
-3496.571533 -1768.407104 6693.762207 0 0 0
-3487.538818 -1768.407104 6693.762207 0 0 0
-3478.506348 -1768.407104 6693.762207 0 0 0
-3469.473633 -1768.407104 6693.762207 0 0 0
-3460.440918 -1768.407104 6693.762207 0 0 0
-3451.408203 -1768.407104 6693.762207 0 0 0
-3442.375732 -1768.407104 6693.762207 0 0 0
-3433.343018 -1768.407104 6693.762207 0 0 0
-3424.310303 -1768.407104 6693.762207 0 0 0
-3415.277588 -1768.407104 6693.762207 0 0 0
-3406.245117 -1768.407104 6693.762207 0 0 0
-3469.493408 -1806.032715 6836.182617 0 0 0
-4074.661621 -1759.374390 6693.762207 242 187 122
-4065.628906 -1759.374390 6693.762207 242 199 135
-4056.596436 -1759.374390 6693.762207 252 241 184
121426.914062 52781.234375 -200812.859375 245 233 179
121155.929688 52781.234375 -200812.859375 183 156 108
120884.953125 52781.234375 -200812.859375 121 91 55
-6505.090332 -2973.590576 11313.400391 111 135 127
-6003.615723 -2750.813477 10465.817383 57 64 58
-5764.183105 -2647.334473 10072.118164 47 45 41
-5750.591309 -2647.334473 10072.118164 47 42 39
-6696.439941 -3104.778320 11812.521484 45 40 34
-6512.888672 -3026.880615 11516.150391 44 39 33
-6497.348633 -3026.880615 11516.150391 43 38 33
-6624.266113 -3093.405518 11769.251953 41 36 33
-3650.126709 -1759.374390 6693.762207 38 33 29
-3641.093994 -1759.374390 6693.762207 37 32 29
-3632.061523 -1759.374390 6693.762207 37 32 29
-3623.028809 -1759.374390 6693.762207 38 33 30
-3613.996094 -1759.374390 6693.762207 39 34 31
-3604.963379 -1759.374390 6693.762207 40 35 30
-3595.930908 -1759.374390 6693.762207 41 35 29
-3586.898193 -1759.374390 6693.762207 41 36 29
-3577.865479 -1759.374390 6693.762207 41 35 29
-3568.832764 -1759.374390 6693.762207 41 35 29
-3559.800293 -1759.374390 6693.762207 40 35 29
-3550.767578 -1759.374390 6693.762207 39 34 29
-3541.734863 -1759.374390 6693.762207 30 26 22
-3532.702148 -1759.374390 6693.762207 7 6 5
-3523.669434 -1759.374390 6693.762207 0 0 0
-3514.636963 -1759.374390 6693.762207 0 0 0
-3505.604248 -1759.374390 6693.762207 0 0 0
-3496.571533 -1759.374390 6693.762207 0 0 0
-3487.538818 -1759.374390 6693.762207 0 0 0
-3478.506348 -1759.374390 6693.762207 0 0 0
-3469.473633 -1759.374390 6693.762207 0 0 0
-3460.440918 -1759.374390 6693.762207 0 0 0
-3451.408203 -1759.374390 6693.762207 0 0 0
-3442.375732 -1759.374390 6693.762207 0 0 0
-3433.343018 -1759.374390 6693.762207 0 0 0
-3424.310303 -1759.374390 6693.762207 0 0 0
-3415.277588 -1759.374390 6693.762207 0 0 0
-3406.245117 -1759.374390 6693.762207 0 0 0
-3397.212402 -1759.374390 6693.762207 0 0 0
-4074.661621 -1750.341797 6693.762207 238 180 115
-4065.628906 -1750.341797 6693.762207 245 211 149
-4056.596436 -1750.341797 6693.762207 254 246 190
121426.914062 52510.253906 -200812.859375 235 220 167
121155.929688 52510.253906 -200812.859375 167 136 90
120884.953125 52510.253906 -200812.859375 118 88 55
-6283.829102 -2857.700928 10928.590820 98 120 115
-5926.398926 -2701.492188 10331.208008 50 55 51
-5675.229492 -2593.098877 9916.684570 46 43 40
-5661.847656 -2593.098877 9916.684570 47 42 39
-6631.737305 -3066.292236 11726.298828 45 39 34
-6615.913574 -3066.292236 11726.298828 43 38 33
-3650.126709 -1750.341797 6693.762207 39 34 28
-3641.093994 -1750.341797 6693.762207 39 34 29
-3632.061523 -1750.341797 6693.762207 38 33 29
-3623.028809 -1750.341797 6693.762207 39 34 31
-3613.996094 -1750.341797 6693.762207 40 35 31
-3604.963379 -1750.341797 6693.762207 40 34 30
-3595.930908 -1750.341797 6693.762207 39 33 29
-3586.898193 -1750.341797 6693.762207 39 34 29
-3577.865479 -1750.341797 6693.762207 38 33 29
-3568.832764 -1750.341797 6693.762207 39 34 29
-3559.800293 -1750.341797 6693.762207 39 33 28
-3550.767578 -1750.341797 6693.762207 38 33 28
-3541.734863 -1750.341797 6693.762207 31 27 22
-3532.702148 -1750.341797 6693.762207 7 6 5
-3523.669434 -1750.341797 6693.762207 0 0 0
-3514.636963 -1750.341797 6693.762207 0 0 0
-3505.604248 -1750.341797 6693.762207 0 0 0
-3496.571533 -1750.341797 6693.762207 0 0 0
-3487.538818 -1750.341797 6693.762207 0 0 0
-3478.506348 -1750.341797 6693.762207 0 0 0
-3469.473633 -1750.341797 6693.762207 0 0 0
-3460.440918 -1750.341797 6693.762207 0 0 0
-3451.408203 -1750.341797 6693.762207 0 0 0
-3442.375732 -1750.341797 6693.762207 0 0 0
-3433.343018 -1750.341797 6693.762207 0 0 0
-3424.310303 -1750.341797 6693.762207 0 0 0
-3415.277588 -1750.341797 6693.762207 0 0 0
-3406.245117 -1750.341797 6693.762207 0 0 0
-3397.212402 -1750.341797 6693.762207 0 0 0
-4074.661621 -1741.309082 6693.762207 235 178 117
-4065.628906 -1741.309082 6693.762207 247 222 167
-4056.596436 -1741.309082 6693.762207 254 245 195
121426.914062 52239.273438 -200812.859375 222 202 155
121155.929688 52239.273438 -200812.859375 152 119 80
-6077.124023 -2749.435547 10569.098633 82 100 99
-5888.530273 -2670.378174 10265.194336 47 50 47
-5606.019531 -2548.257324 9795.749023 47 46 42
-5525.417480 -2517.555420 9677.728516 49 45 41
-6696.439941 -3072.898438 11812.521484 44 39 33
-6420.833984 -2953.457031 11353.377930 46 39 34
-6451.104492 -2974.478271 11434.184570 46 39 34
-3650.126709 -1741.309082 6693.762207 39 34 30
-3641.093994 -1741.309082 6693.762207 39 34 30
-3632.061523 -1741.309082 6693.762207 39 34 30
-3623.028809 -1741.309082 6693.762207 39 34 31
-3613.996094 -1741.309082 6693.762207 39 33 30
-3604.963379 -1741.309082 6693.762207 39 33 29
-3595.930908 -1741.309082 6693.762207 39 33 28
-3586.898193 -1741.309082 6693.762207 40 34 29
-3577.865479 -1741.309082 6693.762207 40 34 29
-3568.832764 -1741.309082 6693.762207 40 34 29
-3559.800293 -1741.309082 6693.762207 38 33 28
-3550.767578 -1741.309082 6693.762207 38 33 28
-3541.734863 -1741.309082 6693.762207 31 27 24
-3532.702148 -1741.309082 6693.762207 8 7 6
-3523.669434 -1741.309082 6693.762207 0 0 0
-3514.636963 -1741.309082 6693.762207 0 0 0
-3505.604248 -1741.309082 6693.762207 0 0 0
-3496.571533 -1741.309082 6693.762207 0 0 0
-3487.538818 -1741.309082 6693.762207 0 0 0
-3478.506348 -1741.309082 6693.762207 0 0 0
-3469.473633 -1741.309082 6693.762207 0 0 0
-3460.440918 -1741.309082 6693.762207 0 0 0
-3451.408203 -1741.309082 6693.762207 0 0 0
-3442.375732 -1741.309082 6693.762207 0 0 0
-3433.343018 -1741.309082 6693.762207 0 0 0
-3424.310303 -1741.309082 6693.762207 0 0 0
-3415.277588 -1741.309082 6693.762207 0 0 0
-3406.245117 -1741.309082 6693.762207 0 0 0
-3397.212402 -1741.309082 6693.762207 0 0 0
-4074.661621 -1732.276489 6693.762207 238 186 131
-4065.628906 -1732.276489 6693.762207 250 231 181
-4056.596436 -1732.276489 6693.762207 252 240 194
121426.914062 51968.292969 -200812.859375 205 181 142
121155.929688 51968.292969 -200812.859375 137 106 74
-6077.124023 -2735.173340 10569.098633 72 85 87
-5814.227051 -2623.005371 10135.665039 47 48 46
-5538.477051 -2504.496094 9677.728516 47 46 42
-5443.437988 -2467.337402 9534.141602 48 44 41
-5382.655762 -2445.566650 9450.017578 47 42 39
-6451.474609 -2938.136719 11353.377930 46 41 37
-6390.988281 -2917.518311 11273.705078 45 40 35
-6375.775391 -2917.518311 11273.705078 46 39 34
-3650.126709 -1732.276489 6693.762207 40 35 30
-3641.093994 -1732.276489 6693.762207 41 35 31
-3632.061523 -1732.276489 6693.762207 41 36 32
-3623.028809 -1732.276489 6693.762207 40 35 32
-3613.996094 -1732.276489 6693.762207 39 34 30
-3604.963379 -1732.276489 6693.762207 39 34 28
-3595.930908 -1732.276489 6693.762207 39 34 28
-3586.898193 -1732.276489 6693.762207 40 34 28
-3577.865479 -1732.276489 6693.762207 41 35 29
-3568.832764 -1732.276489 6693.762207 41 34 29
-3559.800293 -1732.276489 6693.762207 40 34 28
-3550.767578 -1732.276489 6693.762207 40 34 29
-3541.734863 -1732.276489 6693.762207 32 28 24
-3532.702148 -1732.276489 6693.762207 8 7 6
-3523.669434 -1732.276489 6693.762207 0 0 0
-3514.636963 -1732.276489 6693.762207 0 0 0
-3505.604248 -1732.276489 6693.762207 0 0 0
-3496.571533 -1732.276489 6693.762207 0 0 0
-3487.538818 -1732.276489 6693.762207 0 0 0
-3478.506348 -1732.276489 6693.762207 0 0 0
-3469.473633 -1732.276489 6693.762207 0 0 0
-3460.440918 -1732.276489 6693.762207 0 0 0
-3451.408203 -1732.276489 6693.762207 0 0 0
-3442.375732 -1732.276489 6693.762207 0 0 0
-3433.343018 -1732.276489 6693.762207 0 0 0
-3424.310303 -1732.276489 6693.762207 0 0 0
-3415.277588 -1732.276489 6693.762207 0 0 0
-3406.245117 -1732.276489 6693.762207 0 0 0
-3397.212402 -1732.276489 6693.762207 0 0 0
-4074.661621 -1723.243774 6693.762207 241 197 146
-4065.628906 -1723.243774 6693.762207 252 237 192
-4056.596436 -1723.243774 6693.762207 247 232 191
121426.914062 51697.312500 -200812.859375 187 159 128
121155.929688 51697.312500 -200812.859375 126 95 72
-6077.124023 -2720.911133 10569.098633 63 72 76
-5759.718750 -2584.865723 10040.643555 46 46 45
-5472.542969 -2461.776855 9562.517578 45 44 42
-5348.217773 -2411.536377 9367.364258 45 41 39
-5243.848145 -2370.077393 9206.320312 45 40 38
-5231.424805 -2370.077393 9206.320312 46 41 38
-6324.415527 -2872.072998 11156.270508 45 40 37
-6331.344727 -2882.080322 11195.142578 44 39 36
-6316.237793 -2882.080322 11195.142578 43 38 35
-3659.159424 -1723.243774 6693.762207 42 36 31
-3650.126709 -1723.243774 6693.762207 43 37 31
-3641.093994 -1723.243774 6693.762207 42 36 30
-3632.061523 -1723.243774 6693.762207 41 36 31
-3623.028809 -1723.243774 6693.762207 41 36 32
-3613.996094 -1723.243774 6693.762207 41 36 31
-3604.963379 -1723.243774 6693.762207 40 35 30
-3595.930908 -1723.243774 6693.762207 39 34 28
-3586.898193 -1723.243774 6693.762207 39 34 28
-3577.865479 -1723.243774 6693.762207 40 33 30
-3568.832764 -1723.243774 6693.762207 40 33 29
-3559.800293 -1723.243774 6693.762207 41 34 29
-3550.767578 -1723.243774 6693.762207 42 36 30
-3541.734863 -1723.243774 6693.762207 34 29 24
-3532.702148 -1723.243774 6693.762207 8 7 6
-3523.669434 -1723.243774 6693.762207 0 0 0
-3514.636963 -1723.243774 6693.762207 0 0 0
-3505.604248 -1723.243774 6693.762207 0 0 0
-3496.571533 -1723.243774 6693.762207 0 0 0
-3487.538818 -1723.243774 6693.762207 0 0 0
-3478.506348 -1723.243774 6693.762207 0 0 0
-3469.473633 -1723.243774 6693.762207 0 0 0
-3460.440918 -1723.243774 6693.762207 0 0 0
-3451.408203 -1723.243774 6693.762207 0 0 0
-3442.375732 -1723.243774 6693.762207 0 0 0
-3433.343018 -1723.243774 6693.762207 0 0 0
-3424.310303 -1723.243774 6693.762207 0 0 0
-3415.277588 -1723.243774 6693.762207 0 0 0
-3406.245117 -1723.243774 6693.762207 0 0 0
-3397.212402 -1723.243774 6693.762207 0 0 0
-4074.661621 -1714.211182 6693.762207 244 211 167
-4065.628906 -1714.211182 6693.762207 254 242 203
-4056.596436 -1714.211182 6693.762207 238 219 183
121426.914062 51426.332031 -200812.859375 168 137 111
121155.929688 51426.332031 -200812.859375 116 86 69
-5759.718750 -2571.316650 10040.643555 44 44 43
-5424.113281 -2427.201660 9477.893555 43 41 39
-5301.845703 -2378.096436 9286.143555 43 39 38
-5199.156250 -2337.560547 9127.857422 44 38 37
-5186.838867 -2337.560547 9127.857422 44 39 37
-6153.485352 -2779.801758 10854.749023 44 39 36
-5417.684570 -2470.935059 9648.666016 41 36 33
-3668.192139 -1714.211182 6693.762207 44 38 32
-3659.159424 -1714.211182 6693.762207 44 38 32
-3650.126709 -1714.211182 6693.762207 43 37 31
-3641.093994 -1714.211182 6693.762207 41 35 29
-3632.061523 -1714.211182 6693.762207 40 35 30
-3623.028809 -1714.211182 6693.762207 41 36 31
-3613.996094 -1714.211182 6693.762207 40 35 31
-3604.963379 -1714.211182 6693.762207 40 34 31
-3595.930908 -1714.211182 6693.762207 39 34 30
-3586.898193 -1714.211182 6693.762207 39 34 29
-3577.865479 -1714.211182 6693.762207 39 34 28
-3568.832764 -1714.211182 6693.762207 40 34 28
-3559.800293 -1714.211182 6693.762207 41 35 29
-3550.767578 -1714.211182 6693.762207 42 36 30
-3541.734863 -1714.211182 6693.762207 34 29 24
-3532.702148 -1714.211182 6693.762207 8 7 6
-3523.669434 -1714.211182 6693.762207 0 0 0
-3514.636963 -1714.211182 6693.762207 0 0 0
-3505.604248 -1714.211182 6693.762207 0 0 0
-3496.571533 -1714.211182 6693.762207 0 0 0
-3487.538818 -1714.211182 6693.762207 0 0 0
-3478.506348 -1714.211182 6693.762207 0 0 0
-3469.473633 -1714.211182 6693.762207 0 0 0
-3460.440918 -1714.211182 6693.762207 0 0 0
-3451.408203 -1714.211182 6693.762207 0 0 0
-3442.375732 -1714.211182 6693.762207 0 0 0
-3433.343018 -1714.211182 6693.762207 0 0 0
-3424.310303 -1714.211182 6693.762207 0 0 0
-3415.277588 -1714.211182 6693.762207 0 0 0
-3406.245117 -1714.211182 6693.762207 0 0 0
-3397.212402 -1714.211182 6693.762207 0 0 0
-4074.661621 -1705.178467 6693.762207 247 225 187
-4065.628906 -1705.178467 6693.762207 254 243 207
121697.890625 51155.355469 -200812.859375 225 201 170
121426.914062 51155.355469 -200812.859375 150 117 96
121155.929688 51155.355469 -200812.859375 107 80 69
-5360.858398 -2386.255615 9367.364258 43 40 38
-5256.271484 -2345.231201 9206.320312 44 40 37
-5169.782715 -2312.106445 9076.288086 44 38 36
-5128.560059 -2299.116943 9025.296875 42 37 35
-5159.863281 -2318.656250 9102.000000 42 37 34
-5366.245117 -2428.740967 9534.141602 44 38 36
-5259.734375 -2386.255615 9367.364258 42 36 34
-5201.599121 -2365.565430 9286.143555 42 35 33
-3668.192139 -1705.178467 6693.762207 42 37 31
-3659.159424 -1705.178467 6693.762207 42 37 31
-3650.126709 -1705.178467 6693.762207 42 37 31
-3641.093994 -1705.178467 6693.762207 42 36 30
-3632.061523 -1705.178467 6693.762207 42 35 29
-3623.028809 -1705.178467 6693.762207 41 35 30
-3613.996094 -1705.178467 6693.762207 41 35 30
-3604.963379 -1705.178467 6693.762207 41 34 30
-3595.930908 -1705.178467 6693.762207 40 33 30
-3586.898193 -1705.178467 6693.762207 40 34 30
-3577.865479 -1705.178467 6693.762207 41 34 29
-3568.832764 -1705.178467 6693.762207 43 36 30
-3559.800293 -1705.178467 6693.762207 44 36 30
-3550.767578 -1705.178467 6693.762207 43 36 30
-3541.734863 -1705.178467 6693.762207 34 28 23
-3532.702148 -1705.178467 6693.762207 8 7 5
-3523.669434 -1705.178467 6693.762207 0 0 0
-3514.636963 -1705.178467 6693.762207 0 0 0
-3505.604248 -1705.178467 6693.762207 0 0 0
-3496.571533 -1705.178467 6693.762207 0 0 0
-3487.538818 -1705.178467 6693.762207 0 0 0
-3478.506348 -1705.178467 6693.762207 0 0 0
-3469.473633 -1705.178467 6693.762207 0 0 0
-3460.440918 -1705.178467 6693.762207 0 0 0
-3451.408203 -1705.178467 6693.762207 0 0 0
-3442.375732 -1705.178467 6693.762207 0 0 0
-3433.343018 -1705.178467 6693.762207 0 0 0
-3424.310303 -1705.178467 6693.762207 0 0 0
-3415.277588 -1705.178467 6693.762207 0 0 0
-3406.245117 -1705.178467 6693.762207 0 0 0
-3397.212402 -1705.178467 6693.762207 0 0 0
121968.867188 50884.375000 -200812.859375 252 238 205
121697.890625 50884.375000 -200812.859375 207 179 152
121426.914062 50884.375000 -200812.859375 134 100 84
121155.929688 50884.375000 -200812.859375 100 76 70
-5360.858398 -2373.615234 9367.364258 45 40 37
-5182.030273 -2299.858643 9076.288086 44 39 37
-5112.019531 -2274.162109 8974.876953 43 38 35
-5029.662109 -2242.837402 8851.255859 42 37 34
-5073.625977 -2267.827393 8949.876953 42 37 34
-5290.583496 -2387.536621 9422.304688 45 38 35
-5201.599121 -2353.034668 9286.143555 45 38 35
-3722.387939 -1696.145874 6693.762207 44 37 32
-3713.355469 -1696.145874 6693.762207 44 37 31
-3995.673828 -1829.550537 7220.237793 45 38 32
-3921.452637 -1813.251709 7155.915039 42 36 30
-3659.159424 -1696.145874 6693.762207 43 37 30
-3650.126709 -1696.145874 6693.762207 45 39 31
-3641.093994 -1696.145874 6693.762207 46 39 32
-3632.061523 -1696.145874 6693.762207 46 39 31
-3623.028809 -1696.145874 6693.762207 45 38 31
-3613.996094 -1696.145874 6693.762207 45 38 31
-3604.963379 -1696.145874 6693.762207 45 38 31
-3595.930908 -1696.145874 6693.762207 45 37 31
-3586.898193 -1696.145874 6693.762207 44 36 31
-3577.865479 -1696.145874 6693.762207 46 37 31
-3568.832764 -1696.145874 6693.762207 47 39 32
-3559.800293 -1696.145874 6693.762207 48 39 32
-3550.767578 -1696.145874 6693.762207 46 38 31
-3541.734863 -1696.145874 6693.762207 34 28 23
-3532.702148 -1696.145874 6693.762207 8 6 5
-3523.669434 -1696.145874 6693.762207 0 0 0
-3514.636963 -1696.145874 6693.762207 0 0 0
-3505.604248 -1696.145874 6693.762207 0 0 0
-3496.571533 -1696.145874 6693.762207 0 0 0
-3487.538818 -1696.145874 6693.762207 0 0 0
-3478.506348 -1696.145874 6693.762207 0 0 0
-3469.473633 -1696.145874 6693.762207 0 0 0
-3460.440918 -1696.145874 6693.762207 0 0 0
-3451.408203 -1696.145874 6693.762207 0 0 0
-3442.375732 -1696.145874 6693.762207 0 0 0
-3433.343018 -1696.145874 6693.762207 0 0 0
-3424.310303 -1696.145874 6693.762207 0 0 0
-3415.277588 -1696.145874 6693.762207 0 0 0
-3406.245117 -1696.145874 6693.762207 0 0 0
-3397.212402 -1696.145874 6693.762207 0 0 0
121968.867188 50613.394531 -200812.859375 248 230 199
121697.890625 50613.394531 -200812.859375 187 155 133
121426.914062 50613.394531 -200812.859375 121 86 75
121155.929688 50613.394531 -200812.859375 97 76 75
-5124.130371 -2262.051270 8974.876953 45 40 37
-5000.281250 -2212.607422 8778.704102 43 38 35
-4961.324219 -2200.582275 8730.994141 44 38 35
-4949.542480 -2200.582275 8730.994141 45 39 35
-3722.387939 -1687.113159 6693.762207 43 35 32
-3713.355469 -1687.113159 6693.762207 44 37 32
-3995.673828 -1819.807495 7220.237793 44 37 31
-3985.930908 -1819.807495 7220.237793 43 37 31
-3958.397217 -1811.665161 7187.932617 42 36 30
-3948.697754 -1811.665161 7187.932617 42 37 31
-3921.452637 -1803.595337 7155.915039 45 39 31
-3659.159424 -1687.113159 6693.762207 47 40 32
-3650.126709 -1687.113159 6693.762207 49 40 33
-3641.093994 -1687.113159 6693.762207 49 41 33
-3632.061523 -1687.113159 6693.762207 48 40 33
-3623.028809 -1687.113159 6693.762207 48 39 32
-3613.996094 -1687.113159 6693.762207 49 40 32
-3604.963379 -1687.113159 6693.762207 49 41 32
-3595.930908 -1687.113159 6693.762207 48 39 32
-3586.898193 -1687.113159 6693.762207 47 38 31
-3577.865479 -1687.113159 6693.762207 47 38 31
-3568.832764 -1687.113159 6693.762207 48 39 32
-3559.800293 -1687.113159 6693.762207 48 39 33
-3550.767578 -1687.113159 6693.762207 46 38 32
-3541.734863 -1687.113159 6693.762207 35 28 23
-3532.702148 -1687.113159 6693.762207 8 6 5
-3523.669434 -1687.113159 6693.762207 0 0 0
-3514.636963 -1687.113159 6693.762207 0 0 0
-3505.604248 -1687.113159 6693.762207 0 0 0
-3496.571533 -1687.113159 6693.762207 0 0 0
-3487.538818 -1687.113159 6693.762207 0 0 0
-3478.506348 -1687.113159 6693.762207 0 0 0
-3469.473633 -1687.113159 6693.762207 0 0 0
-3460.440918 -1687.113159 6693.762207 0 0 0
-3451.408203 -1687.113159 6693.762207 0 0 0
-3442.375732 -1687.113159 6693.762207 0 0 0
-3433.343018 -1687.113159 6693.762207 0 0 0
-3424.310303 -1687.113159 6693.762207 0 0 0
-3415.277588 -1687.113159 6693.762207 0 0 0
-3406.245117 -1687.113159 6693.762207 0 0 0
-3397.212402 -1687.113159 6693.762207 0 0 0
121968.867188 50342.414062 -200812.859375 239 220 191
121697.890625 50342.414062 -200812.859375 167 133 114
121426.914062 50342.414062 -200812.859375 110 76 67
121155.929688 50342.414062 -200812.859375 100 84 86
-5081.547363 -2231.242676 8900.292969 47 42 39
-4973.105957 -2188.800537 8730.994141 46 40 37
-4894.818359 -2159.460205 8613.957031 46 39 36
-4768.145508 -2108.582764 8411.009766 47 39 36
-4756.795898 -2108.582764 8411.009766 46 39 35
-3731.420654 -1678.080444 6693.762207 43 36 34
-3722.387939 -1678.080444 6693.762207 43 36 33
-3713.355469 -1678.080444 6693.762207 44 37 33
-3995.673828 -1810.064331 7220.237793 44 37 32
-3985.930908 -1810.064331 7220.237793 43 37 31
-3958.397217 -1801.965698 7187.932617 44 37 31
-3948.697754 -1801.965698 7187.932617 46 38 32
-3921.452637 -1793.939087 7155.915039 48 40 33
-3659.159424 -1678.080444 6693.762207 49 40 33
-3650.126709 -1678.080444 6693.762207 49 40 33
-3641.093994 -1678.080444 6693.762207 48 39 32
-3632.061523 -1678.080444 6693.762207 48 39 32
-3623.028809 -1678.080444 6693.762207 48 39 32
-3613.996094 -1678.080444 6693.762207 48 39 32
-3604.963379 -1678.080444 6693.762207 49 40 32
-3595.930908 -1678.080444 6693.762207 48 39 31
-3586.898193 -1678.080444 6693.762207 47 38 31
-3577.865479 -1678.080444 6693.762207 46 37 30
-3568.832764 -1678.080444 6693.762207 46 37 30
-3559.800293 -1678.080444 6693.762207 46 38 31
-3550.767578 -1678.080444 6693.762207 43 36 30
-3541.734863 -1678.080444 6693.762207 33 27 23
-3532.702148 -1678.080444 6693.762207 7 6 5
-3523.669434 -1678.080444 6693.762207 0 0 0
-3514.636963 -1678.080444 6693.762207 0 0 0
-3505.604248 -1678.080444 6693.762207 0 0 0
-3496.571533 -1678.080444 6693.762207 0 0 0
-3487.538818 -1678.080444 6693.762207 0 0 0
-3478.506348 -1678.080444 6693.762207 0 0 0
-3469.473633 -1678.080444 6693.762207 0 0 0
-3460.440918 -1678.080444 6693.762207 0 0 0
-3451.408203 -1678.080444 6693.762207 0 0 0
-3442.375732 -1678.080444 6693.762207 0 0 0
-3433.343018 -1678.080444 6693.762207 0 0 0
-3424.310303 -1678.080444 6693.762207 0 0 0
-3415.277588 -1678.080444 6693.762207 0 0 0
-3406.245117 -1678.080444 6693.762207 0 0 0
-3397.212402 -1678.080444 6693.762207 0 0 0
121968.867188 50071.433594 -200812.859375 226 201 174
121697.890625 50071.433594 -200812.859375 148 113 95
121426.914062 50071.433594 -200812.859375 102 72 65
121155.929688 50071.433594 -200812.859375 109 100 105
-5000.281250 -2188.915283 8778.704102 47 39 37
-4894.818359 -2147.836426 8613.957031 47 39 37
-4768.145508 -2097.232910 8411.009766 46 38 36
-4756.795898 -2097.232910 8411.009766 45 37 35
-3731.420654 -1669.047852 6693.762207 43 37 35
-3722.387939 -1669.047852 6693.762207 44 37 34
-3713.355469 -1669.047852 6693.762207 45 37 35
-3704.322754 -1669.047852 6693.762207 45 37 33
-3985.930908 -1800.321289 7220.237793 45 38 32
-3976.187744 -1800.321289 7220.237793 46 38 31
-3948.697754 -1792.266113 7187.932617 47 38 32
-3668.192139 -1669.047852 6693.762207 48 39 32
-3659.159424 -1669.047852 6693.762207 49 40 33
-3650.126709 -1669.047852 6693.762207 47 39 32
-3641.093994 -1669.047852 6693.762207 47 38 31
-3632.061523 -1669.047852 6693.762207 47 39 31
-3623.028809 -1669.047852 6693.762207 48 39 32
-3613.996094 -1669.047852 6693.762207 48 39 32
-3604.963379 -1669.047852 6693.762207 47 39 31
-3595.930908 -1669.047852 6693.762207 45 37 30
-3586.898193 -1669.047852 6693.762207 46 38 30
-3577.865479 -1669.047852 6693.762207 46 38 31
-3568.832764 -1669.047852 6693.762207 45 37 30
-3559.800293 -1669.047852 6693.762207 44 36 30
-3550.767578 -1669.047852 6693.762207 41 35 29
-3541.734863 -1669.047852 6693.762207 31 26 21
-3532.702148 -1669.047852 6693.762207 7 6 5
-3523.669434 -1669.047852 6693.762207 0 0 0
-3514.636963 -1669.047852 6693.762207 0 0 0
-3505.604248 -1669.047852 6693.762207 0 0 0
-3496.571533 -1669.047852 6693.762207 0 0 0
-3487.538818 -1669.047852 6693.762207 0 0 0
-3478.506348 -1669.047852 6693.762207 0 0 0
-3469.473633 -1669.047852 6693.762207 0 0 0
-3460.440918 -1669.047852 6693.762207 0 0 0
-3451.408203 -1669.047852 6693.762207 0 0 0
-3442.375732 -1669.047852 6693.762207 0 0 0
-3433.343018 -1669.047852 6693.762207 0 0 0
-3424.310303 -1669.047852 6693.762207 0 0 0
-3415.277588 -1669.047852 6693.762207 0 0 0
-3406.245117 -1669.047852 6693.762207 0 0 0
-3397.212402 -1669.047852 6693.762207 0 0 0
121968.867188 49800.457031 -200812.859375 220 177 147
121697.890625 49800.457031 -200812.859375 142 99 83
121426.914062 49800.457031 -200812.859375 100 71 68
121155.929688 49800.457031 -200812.859375 124 120 133
120884.953125 49800.457031 -200812.859375 162 174 198
-3731.420654 -1660.015137 6693.762207 44 37 34
-3722.387939 -1660.015137 6693.762207 44 36 34
-3713.355469 -1660.015137 6693.762207 44 36 33
-3704.322754 -1660.015137 6693.762207 44 36 32
-3695.290039 -1660.015137 6693.762207 45 37 31
-3967.272461 -1786.563477 7204.048828 47 39 32
-3677.224609 -1660.015137 6693.762207 47 39 32
-3668.192139 -1660.015137 6693.762207 46 38 31
-3659.159424 -1660.015137 6693.762207 46 38 31
-3650.126709 -1660.015137 6693.762207 46 38 31
-3641.093994 -1660.015137 6693.762207 45 37 30
-3632.061523 -1660.015137 6693.762207 45 37 30
-3623.028809 -1660.015137 6693.762207 45 38 31
-3613.996094 -1660.015137 6693.762207 44 37 30
-3604.963379 -1660.015137 6693.762207 44 37 30
-3595.930908 -1660.015137 6693.762207 43 36 29
-3586.898193 -1660.015137 6693.762207 43 36 29
-3577.865479 -1660.015137 6693.762207 43 36 30
-3568.832764 -1660.015137 6693.762207 43 36 29
-3559.800293 -1660.015137 6693.762207 43 36 29
-3550.767578 -1660.015137 6693.762207 42 35 29
-3541.734863 -1660.015137 6693.762207 31 27 22
-3532.702148 -1660.015137 6693.762207 7 6 5
-3523.669434 -1660.015137 6693.762207 0 0 0
-3514.636963 -1660.015137 6693.762207 0 0 0
-3505.604248 -1660.015137 6693.762207 0 0 0
-3496.571533 -1660.015137 6693.762207 0 0 0
-3487.538818 -1660.015137 6693.762207 0 0 0
-3478.506348 -1660.015137 6693.762207 0 0 0
-3469.473633 -1660.015137 6693.762207 0 0 0
-3460.440918 -1660.015137 6693.762207 0 0 0
-3451.408203 -1660.015137 6693.762207 0 0 0
-3442.375732 -1660.015137 6693.762207 0 0 0
-3433.343018 -1660.015137 6693.762207 0 0 0
-3424.310303 -1660.015137 6693.762207 0 0 0
-3415.277588 -1660.015137 6693.762207 0 0 0
-3406.245117 -1660.015137 6693.762207 0 0 0
-3397.212402 -1660.015137 6693.762207 0 0 0
121968.867188 49529.476562 -200812.859375 234 176 142
121697.890625 49529.476562 -200812.859375 160 110 92
121426.914062 49529.476562 -200812.859375 111 85 90
121155.929688 49529.476562 -200812.859375 145 145 168
120884.953125 49529.476562 -200812.859375 162 173 203
120613.968750 49529.476562 -200812.859375 163 177 208
-3731.420654 -1650.982544 6693.762207 46 39 34
-3722.387939 -1650.982544 6693.762207 46 38 33
-3713.355469 -1650.982544 6693.762207 46 38 33
-3704.322754 -1650.982544 6693.762207 46 38 32
-3695.290039 -1650.982544 6693.762207 46 38 31
-3686.257324 -1650.982544 6693.762207 46 39 32
-3677.224609 -1650.982544 6693.762207 46 38 31
-3668.192139 -1650.982544 6693.762207 44 36 30
-3659.159424 -1650.982544 6693.762207 44 36 30
-3650.126709 -1650.982544 6693.762207 45 37 31
-3641.093994 -1650.982544 6693.762207 43 36 30
-3632.061523 -1650.982544 6693.762207 43 36 30
-3623.028809 -1650.982544 6693.762207 42 36 30
-3613.996094 -1650.982544 6693.762207 42 36 29
-3604.963379 -1650.982544 6693.762207 43 36 30
-3595.930908 -1650.982544 6693.762207 43 36 29
-3586.898193 -1650.982544 6693.762207 42 35 29
-3577.865479 -1650.982544 6693.762207 41 35 30
-3568.832764 -1650.982544 6693.762207 40 34 30
-3559.800293 -1650.982544 6693.762207 41 35 29
-3550.767578 -1650.982544 6693.762207 42 36 30
-3541.734863 -1650.982544 6693.762207 33 27 23
-3532.702148 -1650.982544 6693.762207 7 6 5
-3523.669434 -1650.982544 6693.762207 0 0 0
-3514.636963 -1650.982544 6693.762207 0 0 0
-3505.604248 -1650.982544 6693.762207 0 0 0
-3496.571533 -1650.982544 6693.762207 0 0 0
-3487.538818 -1650.982544 6693.762207 0 0 0
-3478.506348 -1650.982544 6693.762207 0 0 0
-3469.473633 -1650.982544 6693.762207 0 0 0
-3460.440918 -1650.982544 6693.762207 0 0 0
-3451.408203 -1650.982544 6693.762207 0 0 0
-3442.375732 -1650.982544 6693.762207 0 0 0
-3433.343018 -1650.982544 6693.762207 0 0 0
-3424.310303 -1650.982544 6693.762207 0 0 0
-3415.277588 -1650.982544 6693.762207 0 0 0
-3406.245117 -1650.982544 6693.762207 0 0 0
-3397.212402 -1650.982544 6693.762207 0 0 0
-4065.628906 -1641.949829 6693.762207 229 174 148
121697.890625 49258.496094 -200812.859375 182 138 126
121426.914062 49258.496094 -200812.859375 141 129 144
121155.929688 49258.496094 -200812.859375 159 168 197
120884.953125 49258.496094 -200812.859375 161 175 206
120613.968750 49258.496094 -200812.859375 159 174 206
120342.992188 49258.496094 -200812.859375 158 173 206
-3722.387939 -1641.949829 6693.762207 48 40 34
-3713.355469 -1641.949829 6693.762207 48 39 33
-3704.322754 -1641.949829 6693.762207 47 39 32
-3695.290039 -1641.949829 6693.762207 47 39 32
-3686.257324 -1641.949829 6693.762207 46 38 32
-3677.224609 -1641.949829 6693.762207 45 37 31
-3668.192139 -1641.949829 6693.762207 44 37 31
-3659.159424 -1641.949829 6693.762207 45 37 31
-3650.126709 -1641.949829 6693.762207 47 38 32
-3641.093994 -1641.949829 6693.762207 46 37 31
-3632.061523 -1641.949829 6693.762207 45 37 31
-3623.028809 -1641.949829 6693.762207 43 36 30
-3613.996094 -1641.949829 6693.762207 42 35 29
-3604.963379 -1641.949829 6693.762207 43 36 30
-3595.930908 -1641.949829 6693.762207 43 36 30
-3586.898193 -1641.949829 6693.762207 42 35 30
-3577.865479 -1641.949829 6693.762207 40 34 29
-3568.832764 -1641.949829 6693.762207 39 34 29
-3559.800293 -1641.949829 6693.762207 40 34 28
-3550.767578 -1641.949829 6693.762207 41 35 29
-3541.734863 -1641.949829 6693.762207 32 27 22
-3532.702148 -1641.949829 6693.762207 7 6 4
-3523.669434 -1641.949829 6693.762207 0 0 0
-3514.636963 -1641.949829 6693.762207 0 0 0
-3505.604248 -1641.949829 6693.762207 0 0 0
-3496.571533 -1641.949829 6693.762207 0 0 0
-3487.538818 -1641.949829 6693.762207 0 0 0
-3478.506348 -1641.949829 6693.762207 0 0 0
-3469.473633 -1641.949829 6693.762207 0 0 0
-3460.440918 -1641.949829 6693.762207 0 0 0
-3451.408203 -1641.949829 6693.762207 0 0 0
-3442.375732 -1641.949829 6693.762207 0 0 0
-3433.343018 -1641.949829 6693.762207 0 0 0
-3424.310303 -1641.949829 6693.762207 0 0 0
-3415.277588 -1641.949829 6693.762207 0 0 0
-3406.245117 -1641.949829 6693.762207 0 0 0
-3397.212402 -1641.949829 6693.762207 0 0 0
-4074.661621 -1632.917236 6693.762207 204 180 182
-4065.628906 -1632.917236 6693.762207 200 179 183
-4056.596436 -1632.917236 6693.762207 186 174 186
121426.914062 48987.515625 -200812.859375 169 174 199
